ply
format ascii 1.0
element vertex 1208
property float x
property float y
property float z
property uint8 red
property uint8 green
property uint8 blue
end_header
-0.980880 -2.528214 -1.961220 159 188 220
-3.041449 12.734836 7.937137 56 60 54
-1.324996 -2.395590 -1.994862 136 160 194
-2.574263 12.482038 7.822891 40 45 29
2.246443 0.827284 -1.078082 172 182 202
-0.013735 12.717709 7.901194 135 166 109
2.622342 1.171311 -0.986631 165 176 198
-0.013735 12.717709 7.901194 135 166 109
2.652204 -0.793306 -0.880774 27 33 44
5.249433 22.363419 12.936253 151 157 119
-0.740762 -1.550957 -1.736329 196 231 253
0.102058 12.199705 7.866890 89 116 63
2.656195 1.352732 -0.942600 120 126 145
5.187383 7.003035 4.838750 29 60 26
3.047060 1.820037 -0.810776 109 121 138
-4.309237 13.311275 8.678942 22 29 13
2.674841 -0.772011 -0.663312 5 14 11
-10.196944 12.205530 8.357142 101 109 84
-9.512845 12.571722 8.556992 70 81 72
2.349312 -1.389034 -0.702599 37 39 45
5.034032 6.579800 4.782188 68 108 76
3.732681 -1.964777 -0.447439 129 147 169
-1.908988 22.495955 14.025519 232 234 228
2.882142 -0.507374 -0.543877 128 176 207
-1.910595 22.494827 14.025286 232 234 228
2.572656 -0.976882 -0.595978 66 63 70
-9.734915 11.581734 8.206727 245 250 240
3.041530 -0.021039 -0.480798 53 51 52
-2.377959 12.044484 8.241099 72 85 49
3.047043 0.025937 -0.476196 92 148 165
-3.783623 13.104646 8.920129 167 183 110
2.353532 -1.433930 -0.617571 76 82 82
-7.185897 11.203182 7.993148 146 169 117
2.838168 -0.452697 -0.514550 101 155 183
-10.233311 11.840521 8.555628 137 148 140
2.703302 -0.719576 -0.538119 73 74 87
7.863144 7.171487 5.145704 73 83 66
1.677899 3.236476 -0.586808 190 212 253
-10.353132 12.132408 8.850005 78 88 80
-8.601189 12.660528 9.168767 92 115 90
2.593016 -0.676170 -0.539683 151 151 161
5.872324 6.856343 5.161176 65 93 53
3.000454 -0.108117 -0.430506 83 160 191
-10.262603 11.810650 8.897077 238 243 238
2.852776 -0.401130 -0.459344 90 88 99
-5.727513 11.701426 8.833320 74 79 57
2.951888 -0.208812 -0.429652 103 152 180
-6.966328 24.623341 12.212266 150 152 138
2.793492 -0.377316 -0.453972 163 166 179
-4.665918 19.584249 7.524767 34 57 34
3.057816 0.016485 -0.382110 93 161 184
-1.661024 14.687910 5.473356 21 29 26
1.495347 4.263677 -0.346810 148 180 219
-0.928785 1.904293 -0.870112 11 14 19
2.575028 -0.935872 -0.459740 214 240 254
1.439685 15.551607 6.211072 21 28 19
2.397259 4.871297 -0.185161 109 131 165
1.315686 -1.110131 -0.485515 136 140 159
2.947798 3.179927 -0.214169 108 128 161
0.860983 -0.956594 -0.254511 116 110 123
1.205989 3.174347 -0.378692 145 162 192
1.042615 -0.564315 -1.179677 124 118 107
0.031848 0.580742 -1.210002 135 137 136
2.346541 -1.397595 -0.471764 101 97 106
0.616530 -0.554314 -1.106560 18 22 32
2.772522 -0.520394 -0.355841 176 182 194
0.641723 -0.756907 -0.630562 111 109 127
0.613502 -0.557370 -1.070357 32 36 50
1.429860 -1.158222 -0.712579 82 79 93
2.985155 -0.088397 -0.197402 79 78 83
1.864181 -0.654619 -0.849872 1 3 2
-8.157930 14.220724 1.650610 40 7 11
0.380537 -0.654119 -0.620364 111 113 132
-28.136475 5.849692 1.502842 55 56 62
-0.588417 15.533018 5.783951 91 89 79
0.812237 4.217559 0.732980 158 173 216
-0.422950 -0.645374 -1.499105 109 112 132
0.054943 6.458439 1.098199 162 181 199
1.683388 -1.293402 -0.503909 98 99 111
0.789604 6.606447 1.257535 188 228 254
-0.182049 -2.277086 -1.416066 178 202 238
-4.063016 -1.739975 0.682302 8 151 113
-2.336919 0.508795 -1.241354 197 223 246
-4.026729 -2.078043 0.686856 31 133 119
1.404195 -1.164309 -0.603917 142 141 155
0.602982 8.632815 2.101733 145 149 152
2.054288 -0.130342 -0.961773 30 31 34
-27.041290 56.316765 14.928307 47 48 35
1.997451 -1.154596 -0.875448 36 28 20
-7.181045 13.191722 5.578014 66 80 53
-0.532755 -1.576074 -1.719682 139 160 187
-7.455918 13.361589 5.685647 160 175 116
-2.264124 -0.548113 -0.677742 26 34 37
-6.887677 12.785648 5.604914 133 144 102
0.506777 -0.420368 0.059010 85 84 95
-5.843207 12.551382 5.708740 28 40 26
2.200204 -1.363587 -1.584017 122 147 185
-5.826406 15.182067 7.033828 251 253 247
2.200204 -1.363587 -1.584017 122 147 185
-5.692857 14.498510 6.858850 43 48 26
-0.590744 -1.494644 -1.692028 195 225 251
-1.758416 14.126049 5.782662 15 31 18
-0.378600 0.674033 -0.899297 168 184 211
1.879361 -2.006224 -1.710911 156 184 223
0.707270 -0.856207 -0.363787 139 136 142
2.800477 -0.588088 -1.359401 79 86 103
0.857961 -0.414470 -0.002390 98 95 102
2.419200 -0.820303 -1.440380 126 147 178
-0.439069 -1.610931 -1.724680 192 221 250
1.344832 -1.466977 -1.606398 150 169 211
-1.833513 -1.011944 -1.637516 134 156 181
2.823558 -0.649201 -1.003286 49 50 54
1.066942 -1.012065 -0.421347 80 80 86
2.817439 -0.658662 -0.997207 79 84 89
2.261909 -1.504513 -0.863930 9 7 5
2.442317 1.471350 -0.924566 152 171 203
-1.541607 0.394041 -0.546378 4 9 7
-1.993376 0.760320 -0.173277 73 27 51
2.905982 2.132102 -0.759234 100 111 130
-2.003759 0.969264 -0.130336 218 65 57
2.377970 -1.311085 -1.521444 95 114 143
2.814717 2.336819 -0.721471 113 121 142
0.731429 -1.577246 -1.684875 189 218 254
2.813244 2.340217 -0.722744 113 121 142
0.707015 -1.574848 -1.671342 167 191 230
3.002414 -0.076679 -0.594464 53 53 60
0.702838 -1.566662 -1.674743 167 191 230
2.869256 -0.382515 -0.614324 57 122 144
-1.331288 -0.690093 -1.529395 179 195 222
2.354047 -1.406756 -0.698622 64 64 66
-2.797117 0.696840 -1.286005 174 189 218
2.576186 -0.980044 -0.647410 95 140 162
2.177640 -1.484685 -0.732551 94 100 119
2.885114 -0.344371 -0.571748 95 133 142
-1.611302 0.645823 -0.874873 240 254 254
2.715793 3.175031 -0.545511 172 205 246
-2.295227 -0.613189 -0.699091 151 157 166
2.303107 -1.445629 -0.677947 106 97 98
-2.335805 -0.580335 -0.699969 151 157 166
2.498087 3.004332 -0.568838 169 197 237
-2.283937 -0.581422 -0.658439 22 32 33
2.619930 -0.788431 -0.569862 74 81 91
-2.287747 -0.578480 -0.657032 22 32 33
2.883818 -0.368422 -0.495337 81 117 128
0.350292 1.258744 0.359919 38 32 35
3.075366 0.061256 -0.452889 61 80 96
-0.374692 -0.455721 0.084952 143 143 156
2.822534 -0.479326 -0.489943 117 162 180
1.963745 -1.346335 -1.579377 138 166 206
2.285557 -1.535257 -0.536367 97 86 89
-0.365099 -1.086285 -1.589071 248 229 215
1.230892 -0.775109 -1.259072 32 34 46
0.794621 4.101598 -0.430405 154 178 212
-1.988774 -0.220911 -1.467137 205 221 236
1.927449 4.921655 -0.229117 107 131 165
-0.924020 0.299410 -1.330982 165 183 202
1.244293 4.509480 -0.325953 122 145 176
-2.289597 -0.370396 -1.412801 46 57 68
0.777100 -0.844206 -0.495843 95 98 110
-1.989038 0.803746 -1.127666 212 226 249
-2.321384 -0.305442 -1.103622 192 219 246
-20.281624 0.653669 -1.736226 131 146 179
1.581395 -1.207728 -0.677355 104 103 117
3.008919 -0.137185 -0.236023 70 70 78
-2.192023 -0.724483 -0.815757 134 146 159
-2.240589 -0.484527 -0.696275 181 182 178
-0.293717 0.121330 -0.293003 35 33 43
0.889445 -0.941784 -0.331805 139 137 150
-25.816982 4.695690 -0.857036 186 82 81
0.533122 -0.782074 -0.311379 137 132 145
2.998353 -0.127092 -0.151771 43 43 54
2.452652 15.762791 6.064898 16 21 17
2.364058 0.281903 -0.131477 95 92 104
-0.403476 13.111765 5.494803 96 112 76
1.813565 0.566638 -0.075234 60 61 71
0.817821 11.923006 5.868377 80 104 72
0.617867 5.812693 0.443379 10 10 19
-1.217120 15.215588 7.852686 89 107 59
7.945480 16.291258 8.330516 86 112 69
-14.558584 18.546499 2.041461 85 44 48
0.451411 -1.527333 -1.676918 187 212 252
-14.698502 20.633141 2.293326 93 68 74
0.501965 -1.516318 -1.667970 190 215 253
-7.734237 14.545913 1.773958 90 50 56
0.629955 -1.453284 -1.652795 181 202 245
-7.935970 14.828091 1.809029 90 50 56
1.777019 -0.952716 -1.514431 93 98 117
-7.328021 14.785777 1.871090 108 50 57
1.017943 -1.154819 -1.564826 147 170 210
-7.733333 14.584495 1.872567 231 95 95
-0.121377 -0.619530 -1.487336 87 88 103
-9.939465 15.462055 2.064456 88 4 4
-1.687161 -1.008141 -1.638980 144 165 192
0.883172 6.907006 0.897342 197 224 252
0.969861 -0.608083 -1.284893 180 204 233
0.816864 6.750135 0.944905 149 171 204
-2.190439 -0.294629 -1.489129 78 84 93
0.372267 6.595736 0.938204 189 210 239
-2.190465 -0.294568 -1.489136 78 84 93
1.110213 6.907728 0.967038 104 116 147
1.841350 -1.347518 -0.835124 19 19 19
-26.179974 5.506877 1.437116 205 209 228
0.547698 -0.082220 -0.880625 164 174 199
-8.341599 14.208269 2.223335 249 238 226
1.487225 -1.178525 -0.754997 25 30 49
0.094443 0.851645 0.274893 41 37 43
2.231270 -1.545967 -0.623338 112 119 147
0.823410 6.793200 1.066640 183 198 224
-2.259062 -0.595116 -0.981617 200 221 246
0.187397 6.417162 1.050208 165 181 210
1.923540 -1.388027 -0.613066 115 118 133
-11.264611 19.452578 3.301712 186 182 181
0.160060 -0.544661 -0.645127 70 69 77
-27.932726 25.271086 4.994435 86 92 92
1.046772 -1.024091 -0.578266 76 75 91
1.015745 -0.963608 -0.427938 81 82 91
-20.712708 7.265821 3.272564 52 53 58
-0.777764 0.156286 -0.180580 139 129 163
0.999718 6.656865 1.646551 65 73 74
9.861468 18.723934 7.721607 12 19 12
-21.707239 18.075502 6.190713 69 81 41
2.185859 13.973838 6.102942 22 30 26
-21.604168 17.995693 6.166300 69 81 41
3.290012 14.410810 6.566893 67 77 61
-10.705189 22.286444 6.145342 83 76 58
2.812005 14.329805 6.525738 27 46 26
3.850708 6.528946 3.839113 99 122 72
-10.511196 21.668993 6.452334 128 120 103
-1.617247 17.328184 8.950687 56 93 57
-38.818081 70.633842 21.475023 227 242 118
5.391607 8.171724 4.668958 66 97 68
-7.496545 15.712569 5.372066 79 70 60
0.717688 -1.528893 -1.668343 185 210 250
-22.433821 22.031624 9.555245 131 141 72
-0.039932 -1.770387 -1.738977 202 226 252
-36.757145 66.853157 22.084446 249 251 222
0.339592 -1.597284 -1.689623 192 218 253
-5.996763 13.629786 5.124440 87 106 87
0.664148 -1.359618 -1.694936 189 207 250
-36.680817 68.225502 22.840500 250 253 235
-0.445978 -1.793478 -1.758926 189 220 252
-7.636100 13.334604 5.579730 137 150 94
-0.471528 -1.750162 -1.759681 192 223 253
-6.074769 13.460887 5.383711 45 59 46
-0.496172 -1.620003 -1.718729 181 207 242
-2.352060 14.634727 5.276482 62 93 54
-0.231379 -0.840481 -1.561671 180 199 228
-17.120564 9.629498 7.306993 201 211 139
-2.053669 -0.965519 -1.658499 147 171 193
-5.820815 12.995951 5.797243 89 105 82
1.058774 -0.631351 -1.211964 208 237 255
-5.920745 13.177588 5.932995 29 41 28
-2.194352 -0.575926 -1.553792 155 177 199
-5.817123 12.889726 5.913367 92 107 78
-2.268998 -0.097273 -1.446772 176 156 193
-5.886199 12.652845 6.099293 93 117 81
1.984848 -1.438514 -0.841418 19 20 15
-4.247704 18.434326 7.315804 25 38 22
1.279220 -0.666339 -0.910088 30 38 40
-5.697275 12.691995 6.191613 89 105 73
-2.222881 -0.416858 -1.298252 5 14 21
-5.522687 12.581884 6.205493 101 125 94
-2.226441 -0.414048 -1.299632 5 14 21
-5.789922 12.957898 6.778271 76 92 67
2.247463 -1.556139 -0.760868 67 67 94
2.769765 -0.590971 -0.504943 75 64 77
-2.653709 0.792920 -1.258757 185 204 233
2.628193 -1.037330 -0.785541 64 80 93
-2.652541 0.796940 -1.255264 185 204 233
2.293000 -1.546543 -0.776560 113 162 177
1.003316 -0.820825 -0.818062 19 17 20
2.711194 -0.705749 -0.563283 66 71 76
1.811087 -1.323427 -0.693711 99 100 120
2.798207 -0.747128 -1.030664 119 158 169
1.458425 -1.173475 -0.716850 75 73 87
2.849086 -0.425555 -0.466090 69 73 89
-2.282439 -0.392002 -0.949087 198 221 245
2.612726 -0.626134 -0.998069 79 114 136
-2.293164 -0.513032 -0.779616 38 56 68
2.646051 -0.871192 -0.760259 10 11 13
1.408541 -1.149634 -0.470875 104 107 126
-1.319908 -2.472039 -1.787851 22 25 37
-0.187946 -0.393023 -0.454378 147 145 158
-1.228292 0.007512 -0.234037 68 81 94
2.748261 -0.550037 -0.670951 7 9 8
0.491904 -0.629911 -0.256171 40 40 48
-8.822478 13.839688 6.266194 101 116 72
1.050689 -1.073092 -0.231240 71 71 81
-19.483551 7.598650 6.394874 161 163 150
1.049427 -1.065524 -0.228023 71 71 81
-1.368436 -2.334323 -1.603366 181 205 236
1.018831 -1.032096 -0.224036 77 79 94
-1.274158 -2.539114 -1.979801 156 181 213
12.283418 21.263615 5.942935 65 75 89
0.705968 6.687458 0.667874 7 7 7
8.685020 16.439741 6.307804 65 86 60
-8.975173 13.201830 7.048639 248 249 244
-0.550533 15.122991 5.754689 27 34 26
2.436444 -1.299915 -0.805257 78 163 191
7.733690 15.620951 6.252562 73 92 55
2.872772 -0.442625 -0.502101 101 171 198
1.746913 14.139267 6.139050 58 62 58
3.004103 -0.099993 -0.420126 80 137 160
3.655136 14.006894 6.426435 34 45 31
-18.239386 10.381779 4.791394 105 114 72
3.069827 14.339506 6.683654 31 41 33
-6.345608 11.830849 5.656790 121 130 108
7.863776 16.435354 8.020611 23 40 23
2.249345 -1.927801 -1.693058 154 179 219
-0.153626 12.681969 6.593151 31 46 29
2.507044 0.296760 -1.205442 153 161 177
2.439266 -1.310935 -1.548462 101 114 148
2.706539 -0.733520 -0.966834 83 117 136
1.920890 -1.511679 -1.564102 136 157 194
-1.295259 -2.438633 -1.914226 16 23 31
2.431424 -1.239736 -1.548813 93 112 144
2.435875 -1.232155 -0.662038 129 130 142
2.132083 -1.318194 -1.556310 116 138 172
1.195525 5.778336 -0.056806 131 160 199
0.755371 -1.609041 -1.676812 185 210 250
0.278826 10.424473 1.467911 142 162 196
2.280267 -1.149026 -1.505681 96 112 146
-17.764648 8.380854 6.657757 88 96 55
2.279945 -1.150310 -1.505531 96 112 146
2.575601 -1.493330 -1.577919 151 175 215
-0.361462 -1.890403 -1.778437 127 136 156
-1.055806 -0.363959 -1.463998 226 197 202
-1.805173 1.803885 -0.250668 102 119 147
-0.441260 -1.045897 -1.610659 167 172 191
25.060661 25.824173 12.327099 32 38 46
-0.528177 -0.512491 -1.476067 124 123 133
-2.281369 15.682999 6.267726 2 16 1
0.933401 -0.475258 -1.139235 44 41 50
-2.192424 0.899216 -0.641158 122 221 253
-0.441260 -1.045897 -1.610659 167 172 191
6.268439 8.665433 3.925231 146 158 170
1.928290 7.165909 1.035424 175 211 243
0.239188 -0.420138 -1.429713 99 115 141
6.715267 18.618193 9.662546 29 45 18
0.742242 -0.603882 -1.094805 27 26 36
1.798747 -1.044060 -1.501222 133 158 192
-0.247287 -0.142368 0.246359 58 50 61
-8.181541 13.401476 6.735963 101 113 67
-0.998942 -0.497296 -1.487254 170 195 225
0.579464 12.019320 5.798677 79 100 67
0.071408 -0.040868 -1.352229 88 95 113
-1.719507 1.904547 -0.184538 53 102 114
-0.378122 -0.947397 -1.571469 202 205 224
-0.421632 -0.088250 0.236306 1 0 2
2.237212 -1.850304 -1.649758 147 172 208
-0.094151 -0.373800 -1.437448 94 96 109
0.740637 12.047832 5.907170 25 43 21
-1.748069 1.860250 -0.144715 74 146 161
-0.912281 -0.712933 -1.572989 112 119 135
6.071362 15.984247 8.040388 74 92 66
-1.129474 -0.177557 -1.427068 116 123 139
-1.745053 1.861260 -0.144852 74 146 161
-0.873974 -0.764891 -1.559369 112 119 135
1.256873 11.519879 5.475811 78 89 73
-21.696676 7.650821 2.745615 155 160 183
-0.390533 -0.384222 -1.446965 226 209 205
0.979516 -0.530026 -1.030110 24 24 23
-1.299688 0.117883 -1.377586 207 225 249
-0.891551 -0.726768 -1.551328 93 101 120
0.849490 11.586873 5.603924 17 39 18
-21.400436 7.530261 2.699275 155 160 183
1.022964 -0.573894 -1.260847 187 214 243
-2.846640 15.997314 6.738369 8 28 3
-1.972156 -0.657385 -1.561618 168 189 221
-0.891551 -0.726768 -1.551328 93 101 120
0.987116 12.017420 5.939305 18 28 12
-9.384852 13.596036 6.779900 105 112 70
-0.104407 -0.302057 -1.413640 91 90 104
0.605393 7.848545 4.155906 0 0 0
-1.203268 0.092303 -1.368818 167 183 209
2.179662 -0.853089 -1.431330 100 115 146
7.953641 20.597605 11.825538 42 72 33
-0.343520 12.926961 5.636261 27 41 27
-1.650054 -0.430411 -1.503715 189 207 231
4.732674 6.307382 4.735491 50 86 42
0.736349 -0.617833 -1.032337 31 29 40
-2.179647 0.931631 -0.497620 160 168 190
-0.349417 -0.669470 -1.506408 119 119 140
2.170762 -1.909055 -1.666453 154 179 218
-1.273087 -0.391788 -1.477657 173 196 218
-2.633552 16.006826 7.021477 9 33 1
-1.566478 -0.393844 -1.495157 182 201 227
0.624005 12.622433 6.426973 16 33 15
1.047907 -0.623379 -0.976931 4 3 9
-1.059044 0.036488 -1.358243 210 230 251
-0.400615 -0.596308 -1.498307 75 77 92
9.535080 2.715112 1.933187 156 155 180
2.433764 -1.304789 -0.704673 99 180 206
-0.274271 -0.226232 -1.406577 122 121 134
1.060701 0.501436 1.197933 0 0 0
1.003818 -0.552570 -0.992096 118 123 123
-1.666801 -1.028124 -1.632682 164 185 216
-0.332236 -0.600926 -1.492509 101 106 126
1.599442 -1.179535 -0.642719 126 125 137
2.905881 -0.292843 -0.605077 106 165 194
-0.099879 -0.180974 -1.396825 113 112 126
0.925267 -0.524575 -0.998826 121 136 144
-2.108987 1.173789 -0.249087 93 159 184
-0.975917 -0.520189 -1.493618 89 95 117
-0.268444 0.179606 -0.292272 75 71 76
0.821382 -0.552656 -1.207218 121 113 109
0.963773 -0.561990 -0.980863 82 90 92
-2.212513 0.884266 -0.350973 153 160 168
-0.177659 -0.475309 -1.465808 100 101 115
0.336496 -0.630739 -0.529066 137 137 152
-1.753056 -0.056030 -1.422326 201 223 247
-2.187328 0.893140 -0.338908 137 143 157
1.141650 -0.735458 -1.372442 78 80 93
-0.358712 -0.162424 -1.388805 123 126 140
-1.048247 0.280701 -1.335354 162 183 211
-1.896620 1.276429 0.021233 148 117 132
-1.414457 -0.386358 -1.474676 144 164 190
1.100819 -1.014293 -0.464356 106 104 122
2.909056 -0.297896 -0.739151 65 146 168
0.858575 -0.496616 -1.165280 213 229 243
0.515178 -0.756396 -0.383499 157 146 144
-1.018655 0.387472 -1.307314 127 144 162
1.012586 -0.984662 -0.414135 118 112 118
-1.828507 -0.898255 -1.597583 135 157 182
1.006149 -0.599301 -1.129810 38 32 28
-0.725049 0.125309 0.204448 158 197 186
-0.422773 0.569073 -1.226313 101 113 124
0.756071 -0.625727 -1.376058 87 105 124
1.425570 7.178326 0.470029 27 33 47
-1.272566 -0.010649 -1.401344 144 160 190
-1.251691 0.587023 -0.025887 90 131 163
-0.052106 -0.364510 -1.425568 80 79 91
-1.762693 -0.062588 -1.421275 198 216 244
-1.374648 0.473283 -0.784517 23 31 38
0.900163 -0.887342 -0.740009 108 167 198
13.667627 -13.755286 -3.251432 99 98 104
-0.376556 -0.340755 -1.431330 222 186 169
1.131302 -1.010546 -0.540092 107 109 127
-17.007982 9.815958 6.063485 70 89 34
0.976137 -0.623229 -1.086454 191 201 210
-0.446417 0.127850 -0.294790 13 16 16
0.701000 -0.789096 -0.750914 68 78 90
-1.875820 1.474320 -1.089064 56 57 59
-0.403749 -0.327713 -1.434647 96 92 99
-0.611693 13.645649 5.687532 66 80 49
0.766890 -0.589531 -1.099411 203 205 209
0.801478 -0.853270 -0.701041 5 22 45
-1.777556 2.100494 -0.513952 131 142 153
0.796180 -0.588903 -1.229595 86 84 96
2.928190 -0.498012 -1.318473 112 130 155
2.686250 -0.861595 -1.046943 100 137 146
0.792700 -0.536211 -1.092502 191 189 179
-1.359730 0.603064 -0.985315 21 25 30
2.108329 3.810755 -0.451553 184 210 250
-0.831821 0.273948 -1.308735 145 164 176
-1.176302 0.302649 0.221656 98 194 227
-0.698419 0.192651 -0.880623 153 227 252
-2.943662 0.849850 -1.225856 203 229 254
-0.908641 0.360611 -1.294247 159 177 204
-1.152637 0.189287 0.110562 66 80 89
0.821123 -0.525340 -1.025120 73 68 56
2.845296 -0.431635 -0.499920 114 182 219
1.020915 -0.567390 -0.997798 129 131 130
1.001575 -0.699875 -1.369434 0 0 0
-0.822615 0.244176 -0.891126 133 194 206
-1.753773 2.129947 -0.429114 185 208 232
1.200314 -0.854250 -1.039384 57 65 78
1.070602 -0.972030 -0.598996 77 76 89
-2.170197 -0.437690 -1.002803 147 161 187
1.008933 -0.564711 -0.999680 37 29 31
-1.117879 0.356984 -0.117316 122 197 239
1.974880 7.320330 0.802738 11 11 19
-1.420035 0.429765 -1.300274 170 191 222
-0.431572 -0.389316 -0.133306 62 58 65
-0.414569 -0.096884 0.134273 56 55 58
0.517619 -0.720493 -0.677203 141 200 230
-2.141242 1.425296 -0.700727 223 236 244
0.835461 -0.525005 -1.027544 176 180 177
0.004596 -0.472039 -1.416386 72 73 78
0.562899 -0.747181 -0.670477 119 190 216
-2.029033 1.625722 -0.615364 209 220 223
0.618896 -0.585710 -1.029501 34 39 55
1.221697 6.888100 1.140588 0 0 0
-2.301341 0.653235 -1.288715 162 182 207
-0.450231 -0.240468 -0.519107 157 155 166
-44.924774 62.550186 14.305035 181 176 156
-2.884238 0.883069 -1.268883 180 205 236
0.209586 -0.566336 -0.686123 60 85 110
-2.017512 1.662401 -0.546484 148 133 76
0.031467 1.138950 -1.060868 81 84 93
-0.139928 0.884205 0.471137 93 115 68
0.826003 -0.720050 -0.875983 43 46 59
-0.395505 -0.254844 -0.731855 21 22 21
0.209586 -0.566336 -0.686123 60 85 110
-2.037461 1.621787 -0.538544 82 84 83
2.238376 -1.513965 -0.857149 15 25 30
10.528695 -0.339494 -0.252615 29 30 25
-17.606453 13.745629 6.992776 245 250 149
-0.301870 1.045451 -1.131588 60 64 68
0.004298 -0.538799 -0.331935 175 167 168
-0.877561 0.262432 -0.821798 132 210 245
-2.204874 0.502466 -1.312131 186 211 251
1.835156 -0.645128 -0.870518 14 15 16
2.113758 -1.518754 -0.546544 44 47 56
-21.289473 7.314308 6.767599 176 179 171
-2.857855 1.029336 -1.234721 196 221 248
-1.200738 0.392776 0.221077 55 62 58
0.865189 -0.859969 -0.610917 130 129 143
1.835609 -0.642081 -0.870460 14 15 16
-6.139216 13.117104 6.876008 45 48 32
1.302943 -1.078046 -0.790639 107 160 178
-2.189761 1.266327 -0.672688 201 217 235
1.969875 -1.389866 -0.855352 106 105 111
2.402821 -1.406865 -1.573451 132 156 193
1.377730 -1.124486 -0.780862 60 65 81
10.584525 -1.958973 -0.607552 34 45 46
0.697947 -0.784185 -0.600102 117 113 127
-1.754004 1.904877 -0.456200 47 68 76
-0.923640 1.843321 -0.938348 154 162 182
9.193660 3.063689 4.344624 93 102 101
3.928947 -0.163815 -1.197149 144 166 207
1.225221 -1.033572 -0.789936 72 74 78
8.347169 -0.171762 1.093828 155 170 192
-0.068717 -0.440330 -0.638747 147 212 243
2.061974 -1.442989 -0.836140 105 157 173
0.950474 -0.613452 -1.091104 201 207 221
1.162189 -1.009384 -0.783263 145 197 220
0.679284 -0.768081 -0.650943 134 132 144
-0.195316 -0.379028 -0.629540 71 82 101
0.396041 -0.247362 -0.869958 55 57 69
1.522350 -0.792567 -1.140086 74 75 96
3.268604 1.345272 -0.896079 166 192 227
1.226692 -1.043207 -0.773029 72 54 67
-0.035930 -0.414244 -0.613554 142 140 161
-2.225039 0.998669 -0.680934 240 255 255
1.970248 -1.400874 -0.833732 95 179 208
1.465524 -0.842194 -1.026354 101 108 125
2.572452 1.081352 -1.003147 196 214 245
1.196070 -1.027271 -0.771089 98 67 91
-0.398344 -0.451399 -0.039351 157 155 160
-4.766488 2.668402 -0.924806 177 204 229
2.033408 -1.432125 -0.829116 114 195 233
1.010201 -0.928859 -0.789487 126 176 186
10.232726 -0.431052 0.159611 68 69 55
-2.261181 -0.543150 -0.687923 30 35 38
1.087890 -0.845321 -0.847189 43 46 55
2.844304 -0.443629 -0.777664 113 187 212
1.011009 -0.927655 -0.789627 126 176 186
9.947582 1.166762 0.792573 153 163 190
0.443062 -0.677020 -0.533155 136 139 154
-2.063665 1.271091 -0.550871 111 175 195
-0.929962 0.295045 -0.842627 115 179 212
0.194287 -0.642628 -0.271678 78 73 86
2.593261 -0.962615 -0.653013 78 154 179
1.213996 -1.036207 -0.764916 48 40 61
0.800856 -0.295720 -1.281312 17 16 22
-0.006693 -0.484126 -0.532688 152 154 169
-1.976081 1.380075 -0.502170 177 172 154
0.227590 -0.122962 -0.817777 63 62 58
2.758417 -0.609504 -0.585650 99 97 112
-1.181706 1.345498 -1.079858 68 70 68
-0.213261 -0.215121 -0.749310 25 23 24
-0.849853 0.161803 -0.529953 143 219 244
-1.881493 1.617616 -0.350632 173 193 192
1.832102 -1.337047 -0.802214 111 191 218
16.144548 12.266528 5.248099 63 64 66
2.378792 -1.160897 -0.658927 152 156 168
1.451653 -1.172153 -0.733851 54 62 81
2.252863 -1.523321 -0.815076 104 198 236
-0.354343 -0.293923 -0.513835 89 79 88
-1.867379 1.747329 -0.255768 207 237 250
2.121942 -1.482861 -0.794609 64 67 86
3.908977 6.658356 2.299750 42 44 31
2.442713 -1.096836 -0.633664 161 164 176
1.451653 -1.172153 -0.733851 54 62 81
-1.961694 1.502670 -0.371488 188 207 222
1.986041 -1.418629 -0.790654 85 180 221
4.049249 6.198236 2.532733 89 108 63
2.698221 -0.565814 -0.502077 166 166 183
1.342550 -1.109883 -0.741586 26 28 41
-0.933070 0.231550 0.334616 87 60 49
-0.871053 0.164867 -0.491056 59 85 108
-1.800089 1.797519 -0.240397 111 134 159
1.992852 -1.423469 -0.781805 62 68 85
-0.280067 -2.457030 -0.565014 0 0 0
2.766474 -0.418142 -0.466810 172 175 193
0.394221 -0.257241 -0.849715 46 51 61
11.119352 -1.936436 0.029055 186 210 244
-0.933071 0.194149 -0.481694 231 247 254
-1.762695 1.845558 -0.222498 192 217 236
2.170693 -1.510558 -0.780259 94 178 208
0.602279 12.449431 7.194799 77 97 62
2.814503 -0.323203 -0.444245 179 181 195
1.229225 -1.050185 -0.746066 30 21 40
7.484937 15.783857 8.286781 55 78 52
0.600731 -0.549095 -1.102861 34 32 46
2.841909 -0.284934 -0.430968 155 154 172
0.975209 -0.920340 -0.767202 131 192 220
-0.405388 -0.172941 -1.387559 78 76 88
1.158087 7.388898 0.395487 18 21 28
-2.914349 1.444818 -1.124882 178 204 229
2.605892 -1.844433 -1.668129 146 171 210
-1.337839 0.359238 -0.390190 134 227 253
0.472416 -0.077137 -0.915922 40 40 37
-0.309205 0.113173 -0.362288 17 13 16
0.724776 -0.790618 -0.774001 111 108 115
-0.551875 0.056871 -0.276007 83 148 180
0.556638 -0.794834 -0.335153 141 136 142
-1.854831 1.626795 -0.257864 162 179 189
1.952560 -1.411151 -0.758948 90 192 231
2.567910 -0.957053 -0.978550 14 14 14
1.210526 6.992483 0.902902 187 210 241
-0.708814 0.198483 -0.903941 127 196 203
-1.174196 0.390915 0.195331 33 41 60
0.557508 -0.794088 -0.334985 141 136 142
2.221722 -1.536498 -0.755578 79 81 103
0.039103 -0.484612 -0.633294 82 81 96
1.619585 7.050623 1.137915 196 236 253
-1.685658 0.693447 -0.982955 227 246 252
11.022404 -0.210383 -0.309248 70 75 78
0.068523 -0.559681 -0.319466 138 129 130
1.895957 -1.382303 -0.753563 83 94 116
10.840056 -0.123410 -0.528648 62 70 72
1.170579 6.822652 1.317593 88 90 87
-0.757369 0.217921 -0.898827 122 183 201
11.488955 -2.550159 -0.648264 22 21 22
-0.000838 -0.530633 -0.314698 173 162 167
-1.718097 1.906768 -0.110120 18 31 48
-0.418178 0.266558 -0.740202 14 42 45
9.870049 1.884607 -0.118861 51 30 33
1.809477 7.030985 1.379115 53 55 58
1.301821 -1.099417 -0.721145 45 50 67
-0.508242 0.020238 0.309228 74 58 57
0.001808 -0.529899 -0.302341 146 135 138
-2.131819 1.025041 -0.479083 195 205 209
1.378458 -1.127572 -0.753438 47 48 62
0.033484 -0.541021 -1.461959 130 152 187
0.329901 5.996179 1.314813 150 151 149
0.853230 -0.861648 -0.754014 140 201 234
0.173614 -1.671704 -1.713623 147 166 209
-1.007119 0.311545 -0.101237 234 250 252
-1.808839 1.739594 -0.160150 61 129 132
0.803721 -0.844753 -0.744800 132 212 240
0.059470 -0.386281 -1.441881 63 67 77
-13.675502 33.076679 10.153193 120 97 65
0.853230 -0.861648 -0.754014 140 201 234
-0.148508 -0.380067 -1.441117 249 187 150
-21.483170 7.383332 3.988516 241 250 253
0.803786 -0.842126 -0.755011 57 84 108
0.228496 -0.704900 -0.153135 93 78 83
-2.167429 0.914269 -0.505466 215 240 254
5.771271 3.004199 -0.383417 150 164 193
-0.477475 -0.090088 -0.753904 14 34 36
-25.533234 33.212658 12.556776 243 250 138
-0.645627 0.160458 -0.854979 141 187 200
-0.015382 -0.595066 -0.083665 125 115 118
-2.146882 1.022125 -0.445499 83 144 154
2.468160 -1.296121 -0.705742 17 16 21
2.522317 -1.244912 -0.946302 154 180 215
-2.043827 1.062506 -0.435355 15 16 21
0.706815 -0.806027 -0.708574 99 206 242
-2.970939 15.848149 6.750784 48 72 30
0.886094 -0.890491 -0.720094 129 193 223
1.979836 -1.367673 -0.855705 1 1 2
-21.714046 7.665553 6.783175 214 210 191
0.885917 -0.890518 -0.720070 129 193 223
-0.500960 -0.324069 -0.194279 168 160 157
1.577621 15.201306 6.162276 8 13 9
0.895247 -0.896098 -0.718907 17 50 77
1.065161 -1.065594 -0.430262 79 79 89
10.981009 22.423416 5.834203 163 171 192
-1.513921 -0.468923 -1.506642 130 143 169
-1.076721 0.303273 -0.676564 115 198 232
2.756343 4.010879 -3.277043 115 137 174
0.895653 -0.896109 -0.718822 17 50 77
-0.480706 -0.384184 -0.097045 154 150 165
-1.803378 1.787393 -0.085879 66 123 143
2.116121 -1.465452 -0.712338 50 52 64
16.342560 20.390680 8.040985 64 90 54
-1.845755 -0.866300 -1.622118 173 196 231
2.108368 -1.453077 -0.701999 110 111 132
-0.211284 -0.405048 -0.089950 125 122 125
2.710952 4.054851 -3.247447 105 125 162
-0.742275 0.186202 -0.817613 90 181 216
7.060178 -2.291089 -0.976509 119 136 161
0.035428 -0.644214 0.023468 135 126 129
-2.047182 1.199905 -0.341707 73 64 55
2.088452 -1.448984 -0.699874 119 121 139
24.336365 27.657698 11.837983 6 7 12
2.142466 -1.858357 -1.677288 150 174 209
-1.955103 0.914803 -0.891041 216 217 218
-1.008323 0.845801 0.408551 133 183 216
1.702960 8.689933 2.832688 175 187 200
-1.977356 1.537964 -0.168856 65 69 80
2.239015 -1.522732 -0.700020 114 112 124
-0.223955 -0.289420 -1.422058 81 80 90
2.220350 -1.452452 -1.585423 130 151 189
1.002481 -0.953982 -0.695053 113 182 206
6.638110 14.613656 6.499271 115 147 62
0.987084 0.832684 0.451005 129 127 143
0.820680 -0.867592 -0.687308 135 200 232
-0.097932 -0.176148 -1.394928 89 94 107
1.056241 -0.983162 -0.691781 110 189 221
21.169418 12.455110 7.264554 60 76 47
-0.495062 0.025993 0.261900 5 1 2
-2.021643 1.328086 -0.264396 78 157 163
2.215319 -1.514101 -0.697310 117 115 128
1.885435 -0.283396 -1.344911 72 81 86
0.281196 -0.594589 -0.734769 90 85 90
9.931888 0.166210 1.652730 136 150 167
-0.302567 0.194690 0.343117 10 7 7
-2.016363 1.092647 -0.394075 33 30 23
2.217803 -1.510860 -0.697673 117 115 128
3.636490 -0.132542 -1.289413 152 175 209
2.834921 -0.563860 -1.359714 92 98 112
-0.413066 0.301472 -0.793597 36 69 62
15.527014 9.351320 8.074945 150 195 104
6.249148 17.725723 5.806121 17 18 20
-1.890509 1.638635 -0.120535 62 96 120
2.067981 -1.435461 -0.695851 125 127 146
-0.496766 0.134905 -0.883156 35 34 39
3.717116 0.295010 -1.121070 97 109 132
-1.782903 0.723633 -0.854285 234 245 248
-0.350332 -0.295249 -1.428498 247 185 147
1.676817 8.316330 2.924785 161 175 192
-1.771092 -0.897794 -1.610307 185 206 241
2.067812 -1.438274 -0.696060 125 127 146
1.185382 -0.859987 -0.968598 0 0 0
2.699379 -0.833719 -1.039639 106 136 146
0.949990 -0.930040 -0.691270 138 186 210
-0.174254 -0.508479 -1.466920 66 64 78
5.168025 19.536186 6.464025 18 24 22
-1.774425 -0.893774 -1.606626 185 206 241
1.004366 -0.956564 -0.683683 95 101 117
2.720481 -0.767138 -0.948374 35 25 23
3.435685 0.956505 -1.007251 104 121 142
-0.656655 0.129195 -0.785652 109 199 233
-0.278673 0.281663 0.386813 86 74 82
-1.809904 -0.948401 -1.619649 178 199 230
5.997865 3.218826 -0.260235 79 41 69
0.299617 -0.590696 -0.749301 9 8 6
2.621530 -0.856468 -0.890678 31 30 38
0.748773 -0.826906 -0.698660 8 34 53
-1.053900 0.260256 -0.526603 133 115 141
2.620247 -0.855386 -0.890802 31 30 38
0.895082 -0.905138 -0.687041 126 189 210
-7.169935 13.432801 5.082371 35 42 25
-1.746983 1.795266 -0.021599 168 229 251
1.614900 -1.227822 -0.681564 44 47 62
0.697322 -0.796771 -0.520751 114 112 128
4.044635 6.186107 2.328541 113 84 176
-1.969016 1.480722 -0.128414 203 249 255
1.908772 -1.364205 -0.685247 142 140 155
0.674144 -0.815980 -0.435680 126 125 137
0.515420 -0.716697 -0.695405 124 206 238
-0.408206 -0.037788 -0.509783 36 35 47
-5.830401 13.233732 5.134615 51 65 52
-2.077692 1.243123 -0.214928 101 185 210
0.585017 -0.752269 -0.663740 81 80 98
1.042503 -1.043863 -0.360128 94 106 122
2.657792 -0.781354 -0.779411 96 131 151
-0.454081 -0.205121 -0.740190 107 59 37
-1.150618 0.355345 -0.176511 109 187 218
-0.791529 14.801679 5.717631 47 67 39
-2.254640 0.845340 -0.265413 159 218 238
1.027677 -0.948301 -0.662278 132 138 156
0.787392 -0.903046 -0.300155 34 34 46
-4.323867 19.230099 7.509374 38 54 40
2.113704 -1.467748 -0.677216 58 60 72
-4.463762 19.320059 7.542037 38 58 38
15.918480 12.207715 6.076212 17 19 32
-1.203953 15.215145 5.974969 24 41 23
-1.909759 1.254838 0.017207 206 255 255
1.673429 -1.248112 -0.652162 117 116 132
0.284386 -0.743827 -0.025740 137 132 136
3.961960 6.334393 2.576236 24 27 10
0.112993 -3.060633 -2.014453 161 182 205
2.226621 -1.528249 -0.658727 109 107 128
2.670619 -0.797233 -0.557167 76 74 79
0.338827 -0.629967 -0.693369 143 217 243
-0.452619 0.169686 -0.138838 87 158 195
-7.147976 15.081265 6.276403 66 62 49
1.797575 -1.322266 -0.620749 121 117 134
11.539040 10.121875 5.621877 0 0 0
2.672773 -0.799819 -0.556776 76 74 79
-1.008775 0.307519 -0.762047 133 212 244
-0.353801 0.030869 -0.142227 99 95 101
-2.406506 15.644897 6.383130 15 34 12
2.915154 -0.293735 -0.482393 99 140 159
-1.004765 0.294798 -0.764675 133 212 244
-1.209409 -0.123003 0.053337 143 157 170
-4.976353 19.773905 7.999821 120 127 114
5.392255 -4.237124 -1.894984 28 32 45
1.984023 -1.414793 -0.614065 112 117 136
1.260134 14.806128 9.445240 235 240 229
1.987373 4.522704 -0.280604 159 187 226
0.479681 -0.702294 -0.685654 141 227 245
-1.078844 0.312303 0.203450 103 197 225
0.091051 1.105548 0.128579 130 169 200
-1.001345 0.231751 -0.491078 225 247 248
0.012592 -0.526432 -1.454605 69 66 79
-5.825148 12.908483 5.690084 36 42 29
-1.271341 0.759469 -0.006242 78 149 167
-0.233833 -0.344562 -0.527344 150 146 159
-0.093171 -0.158185 -1.427534 96 94 109
-7.044629 12.895193 5.808306 109 119 95
1.089313 -0.960475 -0.652778 51 51 63
-2.979580 15.682264 6.794393 87 119 65
4.296839 -7.143509 -2.676256 35 39 54
1.126075 -1.000513 -0.567264 118 117 133
2.863256 9.975808 0.649875 44 51 68
-2.263924 0.926623 -0.804630 241 255 254
10.546535 20.139692 10.865689 39 59 39
2.025412 13.823706 5.963228 18 25 20
-1.261324 0.829113 0.053163 211 221 228
0.582747 -0.726185 -0.531963 137 140 159
2.355505 -1.400332 -1.561034 139 167 204
2.409567 6.497174 0.395938 30 37 45
0.477552 -0.702738 -0.675902 39 58 72
-4.816142 20.439222 9.083340 91 108 81
0.558017 -0.738824 -0.534488 138 140 157
2.997033 -1.753880 -1.600870 142 167 207
-4.646144 19.554754 8.852481 153 158 139
-9.775834 3.653431 -0.721739 150 152 165
0.435883 -0.683063 -0.678436 122 223 243
-1.378631 0.505279 -0.795604 7 11 12
-7.490566 13.191114 6.422472 43 58 24
-1.139211 0.514255 -0.003966 86 126 161
2.101129 -1.481018 -0.589703 106 113 134
3.201487 -1.045528 -1.469903 149 175 201
2.994110 -0.121557 -0.250768 60 58 63
0.255951 -0.591899 -0.678608 121 210 244
0.674759 12.274238 5.684764 16 23 14
0.251106 0.265845 -0.028662 44 60 66
0.634957 -0.733616 -0.517560 114 114 130
2.766151 -0.658175 -1.366544 131 151 178
-10.455708 4.641681 -0.489497 140 143 152
1.375542 -1.107801 -0.623615 129 127 141
-1.071692 0.359128 -0.900086 30 44 53
5.728791 14.617135 6.578689 119 134 81
1.079492 7.196587 0.694618 36 38 53
0.482721 -0.673367 -0.641056 159 175 190
0.979658 12.197382 5.789932 14 26 12
0.295267 0.237774 0.015521 57 69 72
1.083269 -0.992171 -0.505776 68 70 83
1.507013 -0.724894 -1.046363 7 8 12
0.758871 6.813082 0.842539 195 219 252
-0.856743 0.199079 -0.684878 116 213 246
-1.052984 0.365847 -0.865490 113 188 209
-1.265190 14.777029 7.075018 41 50 37
3.731122 -6.553082 -1.942957 34 40 52
-1.748792 0.526618 -0.319051 120 205 239
-0.987485 0.341092 -0.868151 114 203 237
-3.852051 18.485769 8.976352 77 99 60
-0.463367 0.275093 0.148524 131 176 197
1.364958 -1.136863 -0.491457 135 136 157
2.505251 -1.227133 -0.962294 77 122 143
-8.622011 13.465157 7.041205 39 44 14
-0.463367 0.275093 0.148524 131 176 197
1.668808 -1.287386 -0.495437 130 127 148
7.039610 0.513563 -0.941684 155 179 205
1.684499 7.043829 1.101089 147 180 218
1.095423 -0.979821 -0.596767 107 107 119
0.503427 -1.557570 -1.683006 88 100 122
-9.600983 13.242314 6.980588 47 60 51
-21.418669 7.876386 0.682583 254 255 255
0.286705 -0.583014 -0.589895 119 117 128
0.478728 -1.557205 -1.668402 88 100 122
-1.893492 1.471317 -1.082303 118 123 142
1.856143 -1.382036 -0.504795 130 136 158
10.767066 -0.318193 -0.825214 33 43 55
1.423689 0.720999 0.059847 115 109 112
1.097605 -0.980200 -0.574709 109 112 128
-1.030062 0.259752 -0.600635 75 99 123
5.691069 15.065197 6.998689 128 140 87
9.925872 1.797132 -0.060752 88 109 112
1.461079 0.681881 0.150857 155 153 174
0.605062 -0.750327 -0.560825 129 128 141
-0.572098 0.141219 -0.879246 63 60 67
-9.007127 13.780822 7.348419 250 253 248
2.152676 -1.528100 -0.626305 150 153 170
0.969983 0.897888 0.215170 42 40 45
-1.105076 0.284746 -0.525799 239 249 250
0.811166 -0.333421 -1.330038 13 14 18
-9.337754 12.403212 6.757741 237 242 239
-2.206281 0.825744 -1.239203 149 167 197
1.865593 -1.387773 -0.498018 109 107 129
9.529294 2.397667 1.435460 13 10 17
-46.710052 70.495659 16.223759 91 100 46
1.213452 -1.057612 -0.505693 105 104 120
1.121467 -0.790122 -1.179087 36 32 47
-7.841879 12.822532 7.146305 39 44 21
-2.112192 1.482612 -0.692223 73 68 68
0.337825 -0.664172 -0.377398 147 143 145
9.832083 1.423675 1.515852 230 252 252
-9.909585 12.938397 7.327277 85 95 87
-2.125202 1.456796 -0.691314 89 89 91
0.310108 -0.658209 -0.377950 126 124 125
-10.017945 12.101358 7.186618 245 247 244
-1.982648 1.728763 -0.540125 209 236 253
-0.088829 -0.487022 -0.307981 148 148 160
-0.512210 -0.459063 -0.009837 111 114 127
-0.189231 0.900011 0.515186 3 3 0
-1.203797 0.306229 -0.412249 112 197 230
-1.880431 1.903966 -0.469154 217 240 253
0.048320 -0.545406 -0.271963 115 114 122
9.508675 3.814661 4.620847 10 20 26
-1.370640 0.640532 -0.901289 7 16 16
-1.952844 1.779638 -0.509295 76 72 82
0.180106 -0.650813 -0.272005 25 38 54
1.249534 -1.243966 -1.563428 104 115 129
-21.649235 7.997519 6.359553 148 150 145
-0.182666 -0.431870 -0.338334 124 117 121
-0.494595 -0.268771 -0.356811 58 56 68
1.323889 -0.656045 -1.053288 31 36 46
-2.024038 1.653060 -0.549833 119 113 86
0.296904 -0.697640 -0.232428 110 108 117
0.512068 -0.711236 -0.532268 138 142 155
2.844237 -0.551417 -1.349015 128 144 169
0.084302 -0.589508 -0.251143 151 138 136
-0.366587 -0.011698 -0.171036 33 31 41
1.291344 -0.584505 -1.264276 37 41 47
-2.135993 1.428831 -0.615515 86 76 85
-0.404979 -0.400121 -0.147690 68 58 58
-0.023289 -0.033381 -0.937551 42 41 39
2.651253 -0.945901 -1.041609 134 171 183
-0.012234 -0.602494 -0.097083 150 141 145
-0.448499 -0.340034 -0.208746 139 137 151
1.216413 -0.848725 -1.121293 55 61 74
-2.130613 1.440835 -0.610570 88 78 86
6.204838 4.937576 1.370479 177 154 64
2.779628 -0.702563 -0.998311 57 55 52
-0.204989 -0.500509 -0.072321 154 149 156
-0.382702 -0.394583 -0.182030 161 149 151
-2.087988 0.634659 -1.281827 158 178 210
7.494675 8.511121 2.340312 71 75 81
2.502509 -1.115449 -0.862638 121 183 207
-0.203997 -0.497416 -0.070218 154 149 156
0.070300 -0.033280 -0.790578 51 51 50
-1.877607 1.829819 -0.464707 48 48 63
-0.396722 -0.378950 -0.106687 64 59 66
2.532060 -0.960749 -0.966365 12 13 17
-1.367800 -0.283464 -1.484113 244 221 223
-1.185786 0.435986 0.233729 75 104 118
0.449734 -0.740034 -0.330014 148 125 117
-2.098727 1.503981 -0.564316 105 100 81
-0.393028 -0.387164 -0.109024 64 59 66
0.155381 -0.509599 -0.760565 73 72 70
-2.866781 -0.576408 -0.144784 92 107 116
-2.078995 1.537166 -0.535670 89 88 84
1.052180 -1.052474 -0.237207 65 62 69
2.268833 -1.543701 -0.832631 112 184 218
2.902070 -0.477998 -0.703403 89 159 186
5.722488 19.463200 5.539068 20 26 32
0.915490 -0.950506 -0.305640 86 85 91
-0.780453 0.162509 -0.833960 125 173 187
2.589664 -1.140040 -0.699715 58 59 63
0.029331 -0.642970 0.034579 164 163 171
-2.605917 -0.491014 -0.568438 143 120 126
2.369166 -1.400920 -0.732929 117 161 181
3.670953 6.826329 2.337063 216 226 248
10.863808 -1.058443 -0.284167 32 40 43
-15.075409 11.019816 6.875181 255 255 205
-1.771895 1.867600 -0.409462 65 134 149
0.464539 1.113093 0.425706 113 106 122
1.569064 -1.212672 -0.640338 140 142 152
1.524260 -1.262506 -0.492549 115 121 140
-2.303315 -0.511988 -1.303306 180 207 243
-1.731495 1.878932 -0.381956 167 184 198
1.005721 0.851228 0.369401 10 9 15
2.141583 -1.543987 -0.595780 153 152 168
2.510659 -1.108033 -0.635480 77 83 95
3.858258 6.303823 2.469351 52 66 49
8.489079 -1.831092 1.023926 27 36 31
-17.330824 11.682978 6.311458 83 109 30
4.112936 6.262748 2.316034 30 38 23
2.785558 13.239676 6.267486 22 35 28
2.008988 7.131744 1.015161 132 163 193
0.331531 12.267202 5.845118 27 46 26
0.598819 -1.532537 -1.668847 152 177 217
-16.504578 11.568627 5.986208 245 250 192
-1.923793 1.519529 -0.100998 115 197 231
6.671079 4.957639 2.147182 151 144 92
1.027796 -0.940236 -0.607608 100 101 116
-3.958207 1.291786 -1.199473 198 225 250
-1.080413 -1.810984 -1.807903 184 209 240
6.858714 8.227510 3.436677 52 57 60
0.659656 -0.733429 -0.634430 111 117 133
-2.250755 0.838833 -0.258948 228 254 253
6.272131 4.784965 2.210653 204 190 118
-0.285222 -0.422961 -0.219393 140 129 137
-19.023407 12.738059 1.076599 102 102 90
-2.027068 0.750628 -0.214842 165 214 244
6.771365 8.127541 3.497982 72 80 82
0.447974 -0.755677 -0.260052 176 162 161
1.092672 6.633427 1.559729 211 240 245
0.654081 -0.841147 -0.328342 148 144 159
11.237872 -1.942344 -1.149546 96 119 121
-16.604490 12.164109 5.836364 247 255 188
-0.140186 3.163105 -0.657130 88 103 106
1.831441 -0.992650 -1.495037 81 94 114
2.702486 -0.686333 -0.830028 62 151 181
0.114947 11.912260 6.008678 49 71 44
-0.419043 -0.311167 -0.438023 64 51 61
3.634311 6.953940 2.523649 148 142 154
-1.879927 1.650398 -0.458714 74 172 197
1.912764 -0.934073 -1.479826 110 130 157
1.622435 14.214032 6.045404 47 49 48
-17.794697 12.327136 6.509614 240 254 137
-1.841485 1.721051 -0.443270 79 124 140
2.443268 -0.900016 -1.444136 115 139 173
7.226246 16.064644 8.003683 43 66 37
-16.427536 11.832503 6.273238 85 112 31
-1.116410 0.130436 -1.355626 162 171 200
2.445460 -0.887804 -1.446062 115 139 173
-17.252626 9.526372 5.569494 51 84 4
-1.152478 -0.281387 -1.455955 253 222 209
-0.862270 -0.801655 -1.553171 163 181 208
5.519015 6.834231 4.568105 42 58 30
-16.797392 10.766887 6.052477 110 130 77
0.169025 3.293125 -0.616189 81 99 102
-0.941112 -0.594427 -1.508496 79 88 106
6.332350 16.413572 8.666882 109 138 89
0.139414 -2.162282 -0.297596 77 101 39
0.169913 3.293930 -0.616673 81 99 102
0.898307 -0.653054 -1.407475 46 50 64
0.844716 13.272708 6.257721 14 29 8
-8.475276 13.263285 6.793633 156 177 100
0.660206 3.478585 -0.562633 140 165 204
0.019547 -0.461560 -1.446630 18 17 23
1.045404 -0.679543 -1.276126 156 177 196
-5.928926 13.702343 7.409737 122 129 94
-2.020006 1.089007 -0.404693 151 153 139
-0.250822 -0.409148 -1.458709 125 101 108
1.050652 -0.580272 -1.247568 98 108 125
2.465788 -1.225908 -0.687865 134 187 215
3.858836 5.863429 4.582867 225 234 224
-9.716732 12.530178 7.500798 242 246 243
-0.422286 -1.043035 -1.598085 198 207 236
0.718489 -0.549631 -1.357359 87 100 117
0.017955 0.708629 -1.166274 32 40 43
-2.093225 -0.882391 -0.965431 206 224 248
2.562522 -1.008968 -0.642108 69 76 82
-0.956641 -0.654023 -1.511154 177 202 234
-1.694001 2.007599 -0.044115 126 148 161
-1.157687 -0.160681 -1.426922 150 170 197
1.084635 -0.743294 -1.173322 143 163 188
2.602453 -0.923077 -0.634728 102 99 115
-0.855624 -0.617890 -1.511369 124 139 178
0.248066 -0.706090 -0.156637 38 20 23
0.970225 -0.525877 -1.203493 22 27 32
-0.206781 -0.151826 -1.376421 113 114 125
0.924754 -0.578664 -1.071665 86 83 77
2.595702 -0.938665 -0.633879 102 168 194
-0.856352 -0.616536 -1.511599 124 139 178
-1.171023 0.393923 0.222686 203 248 252
2.506618 -1.050029 -0.621008 137 168 189
-0.020177 -0.374700 -1.441640 67 67 79
-1.083860 0.311013 0.202955 112 193 213
-0.886152 0.196033 -0.629307 137 206 239
5.994990 5.382767 0.113867 93 108 119
-0.268348 0.004862 -1.336387 204 169 162
1.094427 -0.802712 -1.070683 152 169 185
2.611207 -0.906441 -0.609709 81 173 201
-0.315450 -0.368728 -1.448852 88 91 110
-0.546282 -0.122065 -0.732603 106 193 231
1.477404 -0.795250 -1.174536 83 93 103
2.956552 -0.189881 -0.596080 67 132 161
-1.576482 -0.364280 -1.498181 89 96 115
2.070489 -0.693154 0.084247 104 114 115
-2.667935 1.352068 -1.146256 177 195 223
5.735218 5.120545 0.543501 173 203 237
-1.114997 0.135089 -1.355956 119 139 163
1.011543 0.335848 -1.222682 31 35 40
2.731157 -0.662996 -0.572814 97 91 105
-0.245312 -0.273583 -1.418056 117 112 119
9.613066 2.173393 1.846090 75 73 86
-0.590833 -0.174103 -0.366637 118 213 251
1.111784 -0.700229 -1.064862 112 118 111
2.725843 -0.676832 -0.568450 81 157 181
-1.327050 -0.351835 -1.483976 164 182 210
3.658214 6.644897 3.036934 48 59 81
0.904870 -0.888321 -0.758027 141 202 226
-0.323394 -0.307160 -0.684717 68 100 123
2.697224 -0.735121 -0.552246 73 150 170
-0.044441 -0.148915 -1.386965 87 85 88
3.658214 6.644897 3.036934 48 59 81
1.379601 -0.254750 -1.275053 40 44 44
16.251314 7.575211 1.056011 9 18 22
0.910233 -0.507879 -1.198460 153 152 159
-0.348835 -0.297593 -0.677471 62 102 128
2.314398 -3.424384 -1.346181 171 191 215
0.852449 -0.500451 -1.185724 214 224 235
-0.348835 -0.297593 -0.677471 62 102 128
2.789006 -0.549947 -0.503411 102 170 196
0.839385 -0.504785 -1.187675 105 96 89
3.794595 6.734241 3.084915 28 38 58
1.440826 -1.175822 -0.488555 138 138 156
7.713469 3.485777 0.512231 13 16 29
0.828021 -0.511457 -1.166794 81 78 76
-0.328896 -0.307641 -0.671490 61 99 126
2.656835 -0.729850 -0.503376 86 84 86
-1.009329 0.086994 -1.361359 109 133 158
-0.305155 -1.397400 -0.208837 0 0 0
1.809319 15.282600 6.444484 17 29 16
0.389043 -0.273589 -0.832935 2 7 6
16.178394 7.996711 2.086390 76 93 116
0.806757 -0.527277 -1.156054 201 199 191
-0.194084 -0.367078 -0.700554 25 79 109
3.062498 0.037076 -0.441886 59 53 55
1.068325 -0.568114 -1.097027 33 29 26
23.434055 -0.396908 3.200502 78 98 87
-0.489745 -1.636222 -1.717321 180 206 241
16.178394 7.996711 2.086390 76 93 116
0.807139 -0.527620 -1.156299 201 199 191
-0.790637 -1.150558 -0.390126 74 126 147
2.741507 -0.551707 -0.476602 50 46 51
-0.345629 0.209855 -1.305605 249 101 64
7.355399 15.110038 6.815559 74 98 50
0.946224 -0.994589 -0.255620 144 137 144
14.862043 6.418600 2.829334 106 112 124
2.604656 -0.943878 -1.062832 91 137 151
-0.269812 -0.341164 -0.657900 53 95 120
2.658561 -0.733260 -0.479544 59 56 53
-0.969231 0.268332 -1.320556 155 176 197
6.988804 14.476918 6.552212 74 98 50
1.450487 -0.876018 -1.285367 41 43 55
15.628133 6.673356 3.228498 13 17 17
-0.152156 0.371224 -1.257053 143 144 147
-0.269812 -0.341164 -0.657900 53 95 120
2.953887 -0.269843 -0.444474 129 184 208
-1.342128 0.258080 -1.343033 170 196 225
12.563244 3.506769 4.171673 198 254 254
0.619188 -0.862241 -0.204490 122 125 142
0.143558 -0.511413 -0.747677 37 42 48
2.711399 -0.631722 -0.426991 53 49 53
-0.896572 0.309347 -1.300975 106 120 133
-1.590171 0.684293 -0.959444 176 196 209
16.281406 7.129833 3.755720 84 106 122
0.622687 -0.557285 -1.149198 34 37 53
-0.382699 -0.293078 -0.619163 60 66 82
2.601137 -0.869711 -0.442043 225 248 255
-0.905261 0.336486 -1.306266 106 120 133
-0.944489 0.333357 -1.303916 130 150 179
14.342844 -14.865684 -1.469584 170 182 204
-0.613506 0.487717 -1.249241 116 129 148
-0.310250 -0.328139 -0.620022 69 71 83
2.602358 -0.873261 -0.432655 167 185 209
-1.238479 0.412172 -1.289148 147 168 202
-0.846899 0.329393 -1.299169 97 110 129
1.029418 -0.955944 -0.734797 40 59 82
16.442635 7.098011 3.900656 21 23 24
-0.622462 0.509079 -1.252224 116 129 148
0.090681 -0.510289 -0.676922 124 214 251
1.243460 -0.829474 -1.151275 23 26 38
0.741983 -0.603146 -1.104499 180 181 184
0.337749 -0.620947 -0.723161 151 183 196
2.416372 -1.268904 -0.446951 97 97 105
-0.218626 0.623917 -1.210592 66 65 70
-0.453866 -0.327040 -1.430711 111 110 123
-0.797507 0.167831 -0.792059 111 201 235
6.249022 4.950848 2.251563 155 145 76
0.964835 -0.623605 -1.092143 79 76 83
-0.099765 -0.427880 -0.630346 82 73 88
15.541781 6.415422 4.326423 12 15 15
0.748949 -0.636421 -1.003739 31 33 44
-0.004999 -0.471247 -0.648315 73 82 97
2.423007 -1.247754 -0.444259 98 97 104
-1.176884 0.657307 -1.239305 103 110 131
-0.313081 -0.595621 -1.491902 74 72 89
-1.802204 -0.705638 -1.546018 173 202 230
-1.617432 2.260785 -0.901355 126 151 177
0.891047 -0.534600 -1.001268 133 136 138
-0.005201 -0.471290 -0.648225 73 82 97
-0.745904 0.401404 -1.280050 60 67 81
2.435030 12.658427 4.665636 29 39 32
-2.080196 0.439144 -1.325437 171 199 229
0.871015 -0.542287 -0.990792 165 167 169
0.026527 -0.483475 -0.653449 103 121 143
-2.234165 -0.609930 -1.242018 177 203 237
-1.275053 2.535856 -0.828483 135 167 196
0.904673 -0.493310 -0.976379 60 62 57
0.027389 -0.481688 -0.653028 103 121 143
2.567741 -0.953806 -0.402793 124 118 164
1.597478 -1.222145 -0.812539 64 61 70
-0.370207 -0.394310 -1.451478 226 190 176
-12.489712 3.162823 -0.974753 160 163 156
0.525425 0.013569 -0.879168 160 176 205
-1.541420 0.637333 -0.796753 58 60 70
-1.021456 13.101281 6.213388 35 49 30
-2.115349 -0.276877 -1.478973 171 186 212
-1.375141 0.627822 -1.032262 18 18 26
-0.009587 -0.468983 -0.634113 82 100 112
2.512278 -1.065436 -0.403693 97 93 100
1.608423 -1.240572 -0.767421 95 177 211
-0.639672 0.451541 -1.264777 63 70 76
-2.624117 1.020258 -1.193276 215 239 251
-1.135685 2.585219 -0.818076 133 158 189
2.193639 -1.469096 -0.879252 59 18 40
0.025922 -0.484122 -0.636071 76 77 96
2.769913 6.963671 0.369103 49 65 81
1.687057 -1.282397 -0.749508 59 58 71
-0.639672 0.451541 -1.264777 63 70 76
-0.606207 -0.229764 -0.061938 247 255 255
-1.958364 -0.123027 -1.435799 194 212 238
1.736081 -0.592930 -0.895236 40 40 39
0.265725 -0.597203 -0.682619 48 90 115
-0.281702 0.152906 -0.340121 63 63 72
